ply
format ascii 1.0
element vertex 883
property float x
property float y
property float z
property float nx
property float ny
property float nz
property uchar red
property uchar green
property uchar blue
end_header
-1.3500 -0.3000 0.3000 0.5743 -0.6193 -0.5355 204 204 204
-1.3500 -0.3000 0.3500 0.5919 -0.5911 -0.5480 204 204 204
-1.3500 -0.3000 0.4000 0.6135 -0.5567 -0.5600 204 204 204
-1.3500 -0.3000 0.4500 0.6461 -0.5074 -0.5702 204 204 204
-1.3500 -0.3000 0.5000 0.7142 -0.4056 -0.5705 204 204 204
-1.3500 -0.3000 0.5500 0.9098 0.2003 -0.3634 204 204 204
-1.3500 -0.3000 0.6000 -0.2708 0.7757 0.5700 204 204 204
-1.3500 -0.3000 0.6500 -0.4401 0.6504 0.6191 204 204 204
-1.3500 -0.3000 0.7000 -0.4875 0.5967 0.6374 204 204 204
-1.3500 -0.3000 0.7500 -0.5090 0.5625 0.6515 204 204 204
-1.3500 -0.2500 0.2500 0.7119 -0.5106 -0.4822 204 204 204
-1.3500 -0.2500 0.3000 0.7566 -0.4396 -0.4840 204 204 204
-1.3500 -0.2500 0.3500 0.8112 -0.3391 -0.4764 204 204 204
-1.3500 -0.2500 0.4000 0.8776 -0.1791 -0.4448 204 204 204
-1.3500 -0.2500 0.4500 0.9325 0.1054 -0.3454 204 204 204
-1.3500 -0.2500 0.5000 0.8210 0.5653 -0.0800 204 204 204
-1.3500 -0.2500 0.5500 0.3956 0.8772 0.2720 204 204 204
-1.3500 -0.2500 0.6000 0.0366 0.8870 0.4603 204 204 204
-1.3500 -0.2500 0.6500 -0.1586 0.8259 0.5411 204 204 204
-1.3500 -0.2500 0.7000 -0.2676 0.7670 0.5832 204 204 204
-1.3500 -0.2000 0.2000 0.8220 -0.3996 -0.4057 204 204 204
-1.3500 -0.2000 0.2500 0.8737 -0.2905 -0.3902 204 204 204
-1.3500 -0.2000 0.3000 0.9230 -0.1436 -0.3570 204 204 204
-1.3500 -0.2000 0.3500 0.9548 0.0584 -0.2915 204 204 204
-1.3500 -0.2000 0.4000 0.9303 0.3228 -0.1739 204 204 204
-1.3500 -0.2000 0.4500 0.7949 0.6067 0.0012 204 204 204
-1.3500 -0.2000 0.5000 0.5548 0.8102 0.1894 204 204 204
-1.3500 -0.2000 0.5500 0.3036 0.8917 0.3357 204 204 204
-1.3500 -0.2000 0.6000 0.1044 0.8958 0.4319 204 204 204
-1.3500 -0.2000 0.6500 -0.0391 0.8684 0.4943 204 204 204
-1.3500 -0.1500 0.1500 0.9032 -0.2925 -0.3140 204 204 204
-1.3500 -0.1500 0.2000 0.9465 -0.1565 -0.2821 204 204 204
-1.3500 -0.1500 0.2500 0.9727 0.0109 -0.2320 204 204 204
-1.3500 -0.1500 0.3000 0.9650 0.2092 -0.1579 204 204 204
-1.3500 -0.1500 0.3500 0.9039 0.4238 -0.0574 204 204 204
-1.3500 -0.1500 0.4000 0.7803 0.6224 0.0607 204 204 204
-1.3500 -0.1500 0.4500 0.6116 0.7708 0.1786 204 204 204
-1.3500 -0.1500 0.5000 0.4320 0.8573 0.2801 204 204 204
-1.3500 -0.1500 0.5500 0.2689 0.8933 0.3602 204 204 204
-1.3500 -0.1000 0.1000 0.9581 -0.1912 -0.2133 204 204 204
-1.3500 -0.1000 0.1500 0.9846 -0.0399 -0.1702 204 204 204
-1.3500 -0.1000 0.2000 0.9850 0.1295 -0.1142 204 204 204
-1.3500 -0.1000 0.2500 0.9502 0.3082 -0.0454 204 204 204
-1.3500 -0.1000 0.3000 0.8760 0.4812 0.0328 204 204 204
-1.3500 -0.1000 0.3500 0.7669 0.6315 0.1147 204 204 204
-1.3500 -0.1000 0.4000 0.6358 0.7473 0.1932 204 204 204
-1.3500 -0.0500 0.0500 0.9896 -0.0953 -0.1079 204 204 204
-1.3500 -0.0500 0.1000 0.9963 0.0614 -0.0595 204 204 204
-1.3500 -0.0500 0.1500 0.9749 0.2227 -0.0056 204 204 204
-1.3500 -0.0500 0.2000 0.9241 0.3786 0.0518 204 204 204
-1.3500 -0.0500 0.2500 0.8472 0.5197 0.1100 204 204 204
-1.3500 0.0000 0.0000 1.0000 -0.0024 -0.0005 204 204 204
-1.3500 0.0500 -0.2500 0.8457 -0.5220 -0.1109 204 204 204
-1.3500 0.0500 -0.2000 0.9226 -0.3821 -0.0527 204 204 204
-1.3500 0.0500 -0.1500 0.9739 -0.2271 0.0046 204 204 204
-1.3500 0.0500 -0.1000 0.9961 -0.0666 0.0585 204 204 204
-1.3500 0.0500 -0.0500 0.9901 0.0905 0.1070 204 204 204
-1.3500 0.1000 -0.4000 0.6349 -0.7477 -0.1944 204 204 204
-1.3500 0.1000 -0.3500 0.7653 -0.6331 -0.1162 204 204 204
-1.3500 0.1000 -0.3000 0.8742 -0.4844 -0.0345 204 204 204
-1.3500 0.1000 -0.2500 0.9488 -0.3128 0.0440 204 204 204
-1.3500 0.1000 -0.2000 0.9844 -0.1350 0.1129 204 204 204
-1.3500 0.1000 -0.1500 0.9850 0.0345 0.1692 204 204 204
-1.3500 0.1000 -0.1000 0.9591 0.1866 0.2127 204 204 204
-1.3500 0.1500 -0.5500 0.2687 -0.8929 -0.3614 204 204 204
-1.3500 0.1500 -0.5000 0.4316 -0.8570 -0.2817 204 204 204
-1.3500 0.1500 -0.4500 0.6105 -0.7712 -0.1805 204 204 204
-1.3500 0.1500 -0.4000 0.7784 -0.6246 -0.0631 204 204 204
-1.3500 0.1500 -0.3500 0.9018 -0.4285 0.0550 204 204 204
-1.3500 0.1500 -0.3000 0.9640 -0.2156 0.1559 204 204 204
-1.3500 0.1500 -0.2500 0.9728 -0.0173 0.2309 204 204 204
-1.3500 0.1500 -0.2000 0.9476 0.1510 0.2815 204 204 204
-1.3500 0.1500 -0.1500 0.9046 0.2883 0.3140 204 204 204
-1.3500 0.2000 -0.6500 -0.0390 -0.8681 -0.4949 204 204 204
-1.3500 0.2000 -0.6000 0.1043 -0.8953 -0.4331 204 204 204
-1.3500 0.2000 -0.5500 0.3033 -0.8910 -0.3379 204 204 204
-1.3500 0.2000 -0.5000 0.5536 -0.8102 -0.1925 204 204 204
-1.3500 0.2000 -0.4500 0.7922 -0.6103 -0.0050 204 204 204
-1.3500 0.2000 -0.4000 0.9282 -0.3306 0.1705 204 204 204
-1.3500 0.2000 -0.3500 0.9548 -0.0668 0.2897 204 204 204
-1.3500 0.2000 -0.3000 0.9242 0.1367 0.3565 204 204 204
-1.3500 0.2000 -0.2500 0.8752 0.2857 0.3905 204 204 204
-1.3500 0.2000 -0.2000 0.8233 0.3962 0.4064 204 204 204
-1.3500 0.2500 -0.7000 -0.2671 -0.7675 -0.5828 204 204 204
-1.3500 0.2500 -0.6500 -0.1583 -0.8259 -0.5412 204 204 204
-1.3500 0.2500 -0.6000 0.0366 -0.8861 -0.4620 204 204 204
-1.3500 0.2500 -0.5500 0.3947 -0.8761 -0.2769 204 204 204
-1.3500 0.2500 -0.5000 0.8164 -0.5730 0.0722 204 204 204
-1.3500 0.2500 -0.4500 0.9321 -0.1194 0.3419 204 204 204
-1.3500 0.2500 -0.4000 0.8795 0.1696 0.4447 204 204 204
-1.3500 0.2500 -0.3500 0.8132 0.3331 0.4772 204 204 204
-1.3500 0.2500 -0.3000 0.7582 0.4358 0.4850 204 204 204
-1.3500 0.2500 -0.2500 0.7131 0.5080 0.4832 204 204 204
-1.3500 0.3000 -0.7500 -0.5077 -0.5654 -0.6501 204 204 204
-1.3500 0.3000 -0.7000 -0.4858 -0.6001 -0.6355 204 204 204
-1.3500 0.3000 -0.6500 -0.4379 -0.6543 -0.6166 204 204 204
-1.3500 0.3000 -0.6000 -0.2687 -0.7779 -0.5680 204 204 204
-1.3500 0.3000 -0.5500 0.9027 -0.2629 0.3406 204 204 204
-1.3500 0.3000 -0.5000 0.7191 0.3913 0.5742 204 204 204
-1.3500 0.3000 -0.4500 0.6487 0.5012 0.5727 204 204 204
-1.3500 0.3000 -0.4000 0.6152 0.5531 0.5618 204 204 204
-1.3500 0.3000 -0.3500 0.5930 0.5888 0.5493 204 204 204
-1.3500 0.3000 -0.3000 0.5751 0.6176 0.5365 204 204 204
-1.3500 0.3500 -0.8000 -0.6818 -0.3049 -0.6650 204 204 204
-1.3500 0.3500 -0.7500 -0.7200 -0.2622 -0.6425 204 204 204
-1.3500 0.3500 -0.7000 -0.7817 -0.1634 -0.6018 204 204 204
-1.3500 0.3500 -0.6500 -0.8717 0.1172 -0.4758 204 204 204
-1.3500 0.3500 -0.6000 -0.6120 0.7877 0.0709 204 204 204
-1.3500 0.3500 -0.5500 0.0210 0.8708 0.4912 204 204 204
-1.3500 0.3500 -0.5000 0.2544 0.7863 0.5631 204 204 204
-1.3500 0.3500 -0.4500 0.3468 0.7427 0.5729 204 204 204
-1.3500 0.3500 -0.4000 0.3920 0.7232 0.5687 204 204 204
-1.3500 0.4000 -0.8000 -0.8043 0.0208 -0.5939 204 204 204
-1.3500 0.4000 -0.7500 -0.8430 0.1718 -0.5097 204 204 204
-1.3500 0.4000 -0.7000 -0.8407 0.4193 -0.3426 204 204 204
-1.3500 0.4000 -0.6500 -0.6879 0.7243 -0.0474 204 204 204
-1.3500 0.4000 -0.6000 -0.3738 0.8903 0.2602 204 204 204
-1.3500 0.4000 -0.5500 -0.0972 0.8951 0.4352 204 204 204
-1.3500 0.4000 -0.5000 0.0775 0.8563 0.5107 204 204 204
-1.3500 0.4000 -0.4500 0.1833 0.8209 0.5408 204 204 204
-1.3500 0.4500 -0.8000 -0.8243 0.3410 -0.4519 204 204 204
-1.3500 0.4500 -0.7500 -0.7987 0.5179 -0.3063 204 204 204
-1.3500 0.4500 -0.7000 -0.6993 0.7073 -0.1040 204 204 204
-1.3500 0.4500 -0.6500 -0.5193 0.8464 0.1176 204 204 204
-1.3500 0.4500 -0.6000 -0.3132 0.9021 0.2970 204 204 204
-1.3500 0.4500 -0.5500 -0.1365 0.9007 0.4125 204 204 204
-1.3500 0.5000 -0.7500 -0.6981 0.7009 -0.1466 204 204 204
-1.3500 0.5000 -0.7000 -0.5815 0.8132 0.0247 204 204 204
-1.3500 0.5000 -0.6500 -0.4349 0.8815 0.1841 204 204 204
-1.3000 -2.0000 -2.0000 0.0000 1.0000 0.0000 25 25 25
-1.3000 -2.0000 -1.9500 0.0000 1.0000 0.0000 25 25 25
-1.3000 -2.0000 -1.9000 0.0000 1.0000 0.0000 25 25 25
-1.3000 -2.0000 -1.8500 0.0000 1.0000 0.0000 25 25 25
-1.3000 -2.0000 -1.8000 0.0000 1.0000 0.0000 25 25 25
-1.3000 -2.0000 -1.7500 0.0000 1.0000 0.0000 25 25 25
-1.3000 -2.0000 -1.7000 0.0000 1.0000 0.0000 25 25 25
-1.3000 -2.0000 -1.6500 0.0000 1.0000 0.0000 25 25 25
-1.3000 -2.0000 -1.6000 0.0000 1.0000 0.0000 25 25 25
-1.3000 -2.0000 -1.5500 0.0000 1.0000 0.0000 25 25 25
-1.3000 -2.0000 -1.5000 0.0000 1.0000 0.0000 25 25 25
-1.3000 -2.0000 -1.4500 0.0000 1.0000 0.0000 25 25 25
-1.3000 -2.0000 -1.4000 0.0000 1.0000 0.0000 25 25 25
-1.3000 -2.0000 -1.3500 0.0000 1.0000 0.0000 25 25 25
-1.3000 -2.0000 -1.3000 0.0000 1.0000 0.0000 25 25 25
-1.3000 -2.0000 -1.2500 0.0000 1.0000 0.0000 25 25 25
-1.3000 -2.0000 -1.2000 0.0000 1.0000 0.0000 25 25 25
-1.3000 -2.0000 -1.1500 0.0000 1.0000 0.0000 25 25 25
-1.3000 -2.0000 -1.1000 0.0000 1.0000 0.0000 25 25 25
-1.3000 -2.0000 -1.0500 0.0000 1.0000 0.0000 25 25 25
-1.3000 -2.0000 -1.0000 0.0000 1.0000 0.0000 25 25 25
-1.3000 -2.0000 -0.9500 0.0000 1.0000 0.0000 25 25 25
-1.3000 -2.0000 -0.9000 0.0000 1.0000 0.0000 25 25 25
-1.3000 -2.0000 -0.8500 0.0000 1.0000 0.0000 25 25 25
-1.3000 -2.0000 -0.8000 0.0000 1.0000 0.0000 25 25 25
-1.3000 -2.0000 -0.7500 0.0000 1.0000 0.0000 25 25 25
-1.3000 -2.0000 -0.7000 0.0000 1.0000 0.0000 25 25 25
-1.3000 -2.0000 -0.6500 0.0000 1.0000 0.0000 25 25 25
-1.3000 -2.0000 -0.6000 0.0000 1.0000 0.0000 25 25 25
-1.3000 -2.0000 -0.5500 0.0000 1.0000 0.0000 25 25 25
-1.3000 -2.0000 -0.5000 0.0000 1.0000 0.0000 25 25 25
-1.3000 -2.0000 -0.4500 0.0000 1.0000 0.0000 25 25 25
-1.3000 -2.0000 -0.4000 0.0000 1.0000 0.0000 25 25 25
-1.3000 -2.0000 -0.3500 0.0000 1.0000 0.0000 25 25 25
-1.3000 -2.0000 -0.3000 0.0000 1.0000 0.0000 25 25 25
-1.3000 -2.0000 -0.2500 0.0000 1.0000 0.0000 25 25 25
-1.3000 -2.0000 -0.2000 0.0000 1.0000 0.0000 25 25 25
-1.3000 -2.0000 -0.1500 0.0000 1.0000 0.0000 25 25 25
-1.3000 -2.0000 -0.1000 0.0000 1.0000 0.0000 25 25 25
-1.3000 -2.0000 -0.0500 0.0000 1.0000 0.0000 25 25 25
-1.3000 -2.0000 0.0000 0.0000 1.0000 0.0000 25 25 25
-1.3000 -2.0000 0.0500 0.0000 1.0000 0.0000 25 25 25
-1.3000 -2.0000 0.1000 0.0000 1.0000 0.0000 25 25 25
-1.3000 -2.0000 0.1500 0.0000 1.0000 0.0000 25 25 25
-1.3000 -2.0000 0.2000 0.0000 1.0000 0.0000 25 25 25
-1.3000 -2.0000 0.2500 0.0000 1.0000 0.0000 25 25 25
-1.3000 -2.0000 0.3000 0.0000 1.0000 0.0000 25 25 25
-1.3000 -2.0000 0.3500 0.0000 1.0000 0.0000 25 25 25
-1.3000 -2.0000 0.4000 0.0000 1.0000 0.0000 25 25 25
-1.3000 -2.0000 0.4500 0.0000 1.0000 0.0000 25 25 25
-1.3000 -2.0000 0.5000 0.0000 1.0000 0.0000 25 25 25
-1.3000 -2.0000 0.5500 0.0000 1.0000 0.0000 25 25 25
-1.3000 -2.0000 0.6000 0.0000 1.0000 0.0000 25 25 25
-1.3000 -2.0000 0.6500 0.0000 1.0000 0.0000 25 25 25
-1.3000 -2.0000 0.7000 0.0000 1.0000 0.0000 25 25 25
-1.3000 -2.0000 0.7500 0.0000 1.0000 0.0000 25 25 25
-1.3000 -2.0000 0.8000 0.0000 1.0000 0.0000 25 25 25
-1.3000 -2.0000 0.8500 0.0000 1.0000 0.0000 25 25 25
-1.3000 -2.0000 0.9000 0.0000 1.0000 0.0000 25 25 25
-1.3000 -2.0000 0.9500 0.0000 1.0000 0.0000 25 25 25
-1.3000 -2.0000 1.0000 0.0000 1.0000 0.0000 25 25 25
-1.3000 -2.0000 1.0500 0.0000 1.0000 0.0000 25 25 25
-1.3000 -2.0000 1.1000 0.0000 1.0000 0.0000 25 25 25
-1.3000 -2.0000 1.1500 0.0000 1.0000 0.0000 25 25 25
-1.3000 -2.0000 1.2000 0.0000 1.0000 0.0000 25 25 25
-1.3000 -2.0000 1.2500 0.0000 1.0000 0.0000 25 25 25
-1.3000 -2.0000 1.3000 0.0000 1.0000 0.0000 25 25 25
-1.3000 -2.0000 1.3500 0.0000 1.0000 0.0000 25 25 25
-1.3000 -2.0000 1.4000 0.0000 1.0000 0.0000 25 25 25
-1.3000 -2.0000 1.4500 0.0000 1.0000 0.0000 25 25 25
-1.3000 -2.0000 1.5000 0.0000 1.0000 0.0000 25 25 25
-1.3000 -2.0000 1.5500 0.0000 1.0000 0.0000 25 25 25
-1.3000 -2.0000 1.6000 0.0000 1.0000 0.0000 25 25 25
-1.3000 -2.0000 1.6500 0.0000 1.0000 0.0000 25 25 25
-1.3000 -2.0000 1.7000 0.0000 1.0000 0.0000 25 25 25
-1.3000 -2.0000 1.7500 0.0000 1.0000 0.0000 25 25 25
-1.3000 -2.0000 1.8000 0.0000 1.0000 0.0000 25 25 25
-1.3000 -2.0000 1.8500 0.0000 1.0000 0.0000 25 25 25
-1.3000 -2.0000 1.9000 0.0000 1.0000 0.0000 25 25 25
-1.3000 -2.0000 1.9500 0.0000 1.0000 0.0000 25 25 25
-1.3000 -1.9500 -2.0000 0.0000 1.0000 0.0000 25 25 25
-1.3000 -1.9500 -1.9500 0.0000 1.0000 0.0000 25 25 25
-1.3000 -1.9500 -1.9000 0.0000 1.0000 0.0000 25 25 25
-1.3000 -1.9500 -1.8500 0.0000 1.0000 0.0000 25 25 25
-1.3000 -1.9500 -1.8000 0.0000 1.0000 0.0000 25 25 25
-1.3000 -1.9500 -1.7500 0.0000 1.0000 0.0000 25 25 25
-1.3000 -1.9500 -1.7000 0.0000 1.0000 0.0000 25 25 25
-1.3000 -1.9500 -1.6500 0.0000 1.0000 0.0000 25 25 25
-1.3000 -1.9500 -1.6000 0.0000 1.0000 0.0000 25 25 25
-1.3000 -1.9500 -1.5500 0.0000 1.0000 0.0000 25 25 25
-1.3000 -1.9500 -1.5000 0.0000 1.0000 0.0000 25 25 25
-1.3000 -1.9500 -1.4500 0.0000 1.0000 0.0000 25 25 25
-1.3000 -1.9500 -1.4000 0.0000 1.0000 0.0000 25 25 25
-1.3000 -1.9500 -1.3500 0.0000 1.0000 0.0000 25 25 25
-1.3000 -1.9500 -1.3000 0.0000 1.0000 0.0000 25 25 25
-1.3000 -1.9500 -1.2500 0.0000 1.0000 0.0000 25 25 25
-1.3000 -1.9500 -1.2000 0.0000 1.0000 0.0000 25 25 25
-1.3000 -1.9500 -1.1500 0.0000 1.0000 0.0000 25 25 25
-1.3000 -1.9500 -1.1000 0.0000 1.0000 0.0000 25 25 25
-1.3000 -1.9500 -1.0500 0.0000 1.0000 0.0000 25 25 25
-1.3000 -1.9500 -1.0000 0.0000 1.0000 0.0000 25 25 25
-1.3000 -1.9500 -0.9500 0.0000 1.0000 0.0000 25 25 25
-1.3000 -1.9500 -0.9000 0.0000 1.0000 0.0000 25 25 25
-1.3000 -1.9500 -0.8500 0.0000 1.0000 0.0000 25 25 25
-1.3000 -1.9500 -0.8000 0.0000 1.0000 0.0000 25 25 25
-1.3000 -1.9500 -0.7500 0.0000 1.0000 0.0000 25 25 25
-1.3000 -1.9500 -0.7000 0.0000 1.0000 0.0000 25 25 25
-1.3000 -1.9500 -0.6500 0.0000 1.0000 0.0000 25 25 25
-1.3000 -1.9500 -0.6000 0.0000 1.0000 0.0000 25 25 25
-1.3000 -1.9500 -0.5500 0.0000 1.0000 0.0000 25 25 25
-1.3000 -1.9500 -0.5000 0.0000 1.0000 0.0000 25 25 25
-1.3000 -1.9500 -0.4500 0.0000 1.0000 0.0000 25 25 25
-1.3000 -1.9500 -0.4000 0.0000 1.0000 0.0000 25 25 25
-1.3000 -1.9500 -0.3500 0.0000 1.0000 0.0000 25 25 25
-1.3000 -1.9500 -0.3000 0.0000 1.0000 0.0000 25 25 25
-1.3000 -1.9500 -0.2500 0.0000 1.0000 0.0000 25 25 25
-1.3000 -1.9500 -0.2000 0.0000 1.0000 0.0000 25 25 25
-1.3000 -1.9500 -0.1500 0.0000 1.0000 0.0000 25 25 25
-1.3000 -1.9500 -0.1000 0.0000 1.0000 0.0000 25 25 25
-1.3000 -1.9500 -0.0500 0.0000 1.0000 0.0000 25 25 25
-1.3000 -1.9500 0.0000 0.0000 1.0000 0.0000 25 25 25
-1.3000 -1.9500 0.0500 0.0000 1.0000 0.0000 25 25 25
-1.3000 -1.9500 0.1000 0.0000 1.0000 0.0000 25 25 25
-1.3000 -1.9500 0.1500 0.0000 1.0000 0.0000 25 25 25
-1.3000 -1.9500 0.2000 0.0000 1.0000 0.0000 25 25 25
-1.3000 -1.9500 0.2500 0.0000 1.0000 0.0000 25 25 25
-1.3000 -1.9500 0.3000 0.0000 1.0000 0.0000 25 25 25
-1.3000 -1.9500 0.3500 0.0000 1.0000 0.0000 25 25 25
-1.3000 -1.9500 0.4000 0.0000 1.0000 0.0000 25 25 25
-1.3000 -1.9500 0.4500 0.0000 1.0000 0.0000 25 25 25
-1.3000 -1.9500 0.5000 0.0000 1.0000 0.0000 25 25 25
-1.3000 -1.9500 0.5500 0.0000 1.0000 0.0000 25 25 25
-1.3000 -1.9500 0.6000 0.0000 1.0000 0.0000 25 25 25
-1.3000 -1.9500 0.6500 0.0000 1.0000 0.0000 25 25 25
-1.3000 -1.9500 0.7000 0.0000 1.0000 0.0000 25 25 25
-1.3000 -1.9500 0.7500 0.0000 1.0000 0.0000 25 25 25
-1.3000 -1.9500 0.8000 0.0000 1.0000 0.0000 25 25 25
-1.3000 -1.9500 0.8500 0.0000 1.0000 0.0000 25 25 25
-1.3000 -1.9500 0.9000 0.0000 1.0000 0.0000 25 25 25
-1.3000 -1.9500 0.9500 0.0000 1.0000 0.0000 25 25 25
-1.3000 -1.9500 1.0000 0.0000 1.0000 0.0000 25 25 25
-1.3000 -1.9500 1.0500 0.0000 1.0000 0.0000 25 25 25
-1.3000 -1.9500 1.1000 0.0000 1.0000 0.0000 25 25 25
-1.3000 -1.9500 1.1500 0.0000 1.0000 0.0000 25 25 25
-1.3000 -1.9500 1.2000 0.0000 1.0000 0.0000 25 25 25
-1.3000 -1.9500 1.2500 0.0000 1.0000 0.0000 25 25 25
-1.3000 -1.9500 1.3000 0.0000 1.0000 0.0000 25 25 25
-1.3000 -1.9500 1.3500 0.0000 1.0000 0.0000 25 25 25
-1.3000 -1.9500 1.4000 0.0000 1.0000 0.0000 25 25 25
-1.3000 -1.9500 1.4500 0.0000 1.0000 0.0000 25 25 25
-1.3000 -1.9500 1.5000 0.0000 1.0000 0.0000 25 25 25
-1.3000 -1.9500 1.5500 0.0000 1.0000 0.0000 25 25 25
-1.3000 -1.9500 1.6000 0.0000 1.0000 0.0000 25 25 25
-1.3000 -1.9500 1.6500 0.0000 1.0000 0.0000 25 25 25
-1.3000 -1.9500 1.7000 0.0000 1.0000 0.0000 25 25 25
-1.3000 -1.9500 1.7500 0.0000 1.0000 0.0000 25 25 25
-1.3000 -1.9500 1.8000 0.0000 1.0000 0.0000 25 25 25
-1.3000 -1.9500 1.8500 0.0000 1.0000 0.0000 25 25 25
-1.3000 -1.9500 1.9000 0.0000 1.0000 0.0000 25 25 25
-1.3000 -1.9500 1.9500 0.0000 1.0000 0.0000 25 25 25
-1.3000 -1.9000 -2.0000 0.0000 1.0000 0.0000 25 25 25
-1.3000 -1.9000 -1.9500 0.0000 1.0000 0.0000 25 25 25
-1.3000 -1.9000 -1.9000 0.0000 1.0000 0.0000 25 25 25
-1.3000 -1.9000 -1.8500 0.0000 1.0000 0.0000 25 25 25
-1.3000 -1.9000 -1.8000 0.0000 1.0000 0.0000 25 25 25
-1.3000 -1.9000 -1.7500 0.0000 1.0000 0.0000 25 25 25
-1.3000 -1.9000 -1.7000 0.0000 1.0000 0.0000 25 25 25
-1.3000 -1.9000 -1.6500 0.0000 1.0000 0.0000 25 25 25
-1.3000 -1.9000 -1.6000 0.0000 1.0000 0.0000 25 25 25
-1.3000 -1.9000 -1.5500 0.0000 1.0000 0.0000 25 25 25
-1.3000 -1.9000 -1.5000 0.0000 1.0000 0.0000 25 25 25
-1.3000 -1.9000 -1.4500 0.0000 1.0000 0.0000 25 25 25
-1.3000 -1.9000 -1.4000 0.0000 1.0000 0.0000 25 25 25
-1.3000 -1.9000 -1.3500 0.0000 1.0000 0.0000 25 25 25
-1.3000 -1.9000 -1.3000 0.0000 1.0000 0.0000 25 25 25
-1.3000 -1.9000 -1.2500 0.0000 1.0000 0.0000 25 25 25
-1.3000 -1.9000 -1.2000 0.0000 1.0000 0.0000 25 25 25
-1.3000 -1.9000 -1.1500 0.0000 1.0000 0.0000 25 25 25
-1.3000 -1.9000 -1.1000 0.0000 1.0000 0.0000 25 25 25
-1.3000 -1.9000 -1.0500 0.0000 1.0000 0.0000 25 25 25
-1.3000 -1.9000 -1.0000 0.0000 1.0000 0.0000 25 25 25
-1.3000 -1.9000 -0.9500 0.0000 1.0000 0.0000 25 25 25
-1.3000 -1.9000 -0.9000 0.0000 1.0000 0.0000 25 25 25
-1.3000 -1.9000 -0.8500 0.0000 1.0000 0.0000 25 25 25
-1.3000 -1.9000 -0.8000 0.0000 1.0000 0.0000 25 25 25
-1.3000 -1.9000 -0.7500 0.0000 1.0000 0.0000 25 25 25
-1.3000 -1.9000 -0.7000 0.0000 1.0000 0.0000 25 25 25
-1.3000 -1.9000 -0.6500 0.0000 1.0000 0.0000 25 25 25
-1.3000 -1.9000 -0.6000 0.0000 1.0000 0.0000 25 25 25
-1.3000 -1.9000 -0.5500 0.0000 1.0000 0.0000 25 25 25
-1.3000 -1.9000 -0.5000 0.0000 1.0000 0.0000 25 25 25
-1.3000 -1.9000 -0.4500 0.0000 1.0000 0.0000 25 25 25
-1.3000 -1.9000 -0.4000 0.0000 1.0000 0.0000 25 25 25
-1.3000 -1.9000 -0.3500 0.0000 1.0000 0.0000 25 25 25
-1.3000 -1.9000 -0.3000 0.0000 1.0000 0.0000 25 25 25
-1.3000 -1.9000 -0.2500 0.0000 1.0000 0.0000 25 25 25
-1.3000 -1.9000 -0.2000 0.0000 1.0000 0.0000 25 25 25
-1.3000 -1.9000 -0.1500 0.0000 1.0000 0.0000 25 25 25
-1.3000 -1.9000 -0.1000 0.0000 1.0000 0.0000 25 25 25
-1.3000 -1.9000 -0.0500 0.0000 1.0000 0.0000 25 25 25
-1.3000 -1.9000 0.0000 0.0000 1.0000 0.0000 25 25 25
-1.3000 -1.9000 0.0500 0.0000 1.0000 0.0000 25 25 25
-1.3000 -1.9000 0.1000 0.0000 1.0000 0.0000 25 25 25
-1.3000 -1.9000 0.1500 0.0000 1.0000 0.0000 25 25 25
-1.3000 -1.9000 0.2000 0.0000 1.0000 0.0000 25 25 25
-1.3000 -1.9000 0.2500 0.0000 1.0000 0.0000 25 25 25
-1.3000 -1.9000 0.3000 0.0000 1.0000 0.0000 25 25 25
-1.3000 -1.9000 0.3500 0.0000 1.0000 0.0000 25 25 25
-1.3000 -1.9000 0.4000 0.0000 1.0000 0.0000 25 25 25
-1.3000 -1.9000 0.4500 0.0000 1.0000 0.0000 25 25 25
-1.3000 -1.9000 0.5000 0.0000 1.0000 0.0000 25 25 25
-1.3000 -1.9000 0.5500 0.0000 1.0000 0.0000 25 25 25
-1.3000 -1.9000 0.6000 0.0000 1.0000 0.0000 25 25 25
-1.3000 -1.9000 0.6500 0.0000 1.0000 0.0000 25 25 25
-1.3000 -1.9000 0.7000 0.0000 1.0000 0.0000 25 25 25
-1.3000 -1.9000 0.7500 0.0000 1.0000 0.0000 25 25 25
-1.3000 -1.9000 0.8000 0.0000 1.0000 0.0000 25 25 25
-1.3000 -1.9000 0.8500 0.0000 1.0000 0.0000 25 25 25
-1.3000 -1.9000 0.9000 0.0000 1.0000 0.0000 25 25 25
-1.3000 -1.9000 0.9500 0.0000 1.0000 0.0000 25 25 25
-1.3000 -1.9000 1.0000 0.0000 1.0000 0.0000 25 25 25
-1.3000 -1.9000 1.0500 0.0000 1.0000 0.0000 25 25 25
-1.3000 -1.9000 1.1000 0.0000 1.0000 0.0000 25 25 25
-1.3000 -1.9000 1.1500 0.0000 1.0000 0.0000 25 25 25
-1.3000 -1.9000 1.2000 0.0000 1.0000 0.0000 25 25 25
-1.3000 -1.9000 1.2500 0.0000 1.0000 0.0000 25 25 25
-1.3000 -1.9000 1.3000 0.0000 1.0000 0.0000 25 25 25
-1.3000 -1.9000 1.3500 0.0000 1.0000 0.0000 25 25 25
-1.3000 -1.9000 1.4000 0.0000 1.0000 0.0000 25 25 25
-1.3000 -1.9000 1.4500 0.0000 1.0000 0.0000 25 25 25
-1.3000 -1.9000 1.5000 0.0000 1.0000 0.0000 25 25 25
-1.3000 -1.9000 1.5500 0.0000 1.0000 0.0000 25 25 25
-1.3000 -1.9000 1.6000 0.0000 1.0000 0.0000 25 25 25
-1.3000 -1.9000 1.6500 0.0000 1.0000 0.0000 25 25 25
-1.3000 -1.9000 1.7000 0.0000 1.0000 0.0000 25 25 25
-1.3000 -1.9000 1.7500 0.0000 1.0000 0.0000 25 25 25
-1.3000 -1.9000 1.8000 0.0000 1.0000 0.0000 25 25 25
-1.3000 -1.9000 1.8500 0.0000 1.0000 0.0000 25 25 25
-1.3000 -1.9000 1.9000 0.0000 1.0000 0.0000 25 25 25
-1.3000 -1.9000 1.9500 0.0000 1.0000 0.0000 25 25 25
-1.3000 -1.8500 -2.0000 0.0000 1.0000 0.0000 25 25 25
-1.3000 -1.8500 -1.9500 0.0000 1.0000 0.0000 25 25 25
-1.3000 -1.8500 -1.9000 0.0000 1.0000 0.0000 25 25 25
-1.3000 -1.8500 -1.8500 0.0000 1.0000 0.0000 25 25 25
-1.3000 -1.8500 -1.8000 0.0000 1.0000 0.0000 25 25 25
-1.3000 -1.8500 -1.7500 0.0000 1.0000 0.0000 25 25 25
-1.3000 -1.8500 -1.7000 0.0000 1.0000 0.0000 25 25 25
-1.3000 -1.8500 -1.6500 0.0000 1.0000 0.0000 25 25 25
-1.3000 -1.8500 -1.6000 0.0000 1.0000 0.0000 25 25 25
-1.3000 -1.8500 -1.5500 0.0000 1.0000 0.0000 25 25 25
-1.3000 -1.8500 -1.5000 0.0000 1.0000 0.0000 25 25 25
-1.3000 -1.8500 -1.4500 0.0000 1.0000 0.0000 25 25 25
-1.3000 -1.8500 -1.4000 0.0000 1.0000 0.0000 25 25 25
-1.3000 -1.8500 -1.3500 0.0000 1.0000 0.0000 25 25 25
-1.3000 -1.8500 -1.3000 0.0000 1.0000 0.0000 25 25 25
-1.3000 -1.8500 -1.2500 0.0000 1.0000 0.0000 25 25 25
-1.3000 -1.8500 -1.2000 0.0000 1.0000 0.0000 25 25 25
-1.3000 -1.8500 -1.1500 0.0000 1.0000 0.0000 25 25 25
-1.3000 -1.8500 -1.1000 0.0000 1.0000 0.0000 25 25 25
-1.3000 -1.8500 -1.0500 0.0000 1.0000 0.0000 25 25 25
-1.3000 -1.8500 -1.0000 0.0000 1.0000 0.0000 25 25 25
-1.3000 -1.8500 -0.9500 0.0000 1.0000 0.0000 25 25 25
-1.3000 -1.8500 -0.9000 0.0000 1.0000 0.0000 25 25 25
-1.3000 -1.8500 -0.8500 0.0000 1.0000 0.0000 25 25 25
-1.3000 -1.8500 -0.8000 0.0000 1.0000 0.0000 25 25 25
-1.3000 -1.8500 -0.7500 0.0000 1.0000 0.0000 25 25 25
-1.3000 -1.8500 -0.7000 0.0000 1.0000 0.0000 25 25 25
-1.3000 -1.8500 -0.6500 0.0000 1.0000 0.0000 25 25 25
-1.3000 -1.8500 -0.6000 0.0000 1.0000 0.0000 25 25 25
-1.3000 -1.8500 -0.5500 0.0000 1.0000 0.0000 25 25 25
-1.3000 -1.8500 -0.5000 0.0000 1.0000 0.0000 25 25 25
-1.3000 -1.8500 -0.4500 0.0000 1.0000 0.0000 25 25 25
-1.3000 -1.8500 -0.4000 0.0000 1.0000 0.0000 25 25 25
-1.3000 -1.8500 -0.3500 0.0000 1.0000 0.0000 25 25 25
-1.3000 -1.8500 -0.3000 0.0000 1.0000 0.0000 25 25 25
-1.3000 -1.8500 -0.2500 0.0000 1.0000 0.0000 25 25 25
-1.3000 -1.8500 -0.2000 0.0000 1.0000 0.0000 25 25 25
-1.3000 -1.8500 -0.1500 0.0000 1.0000 0.0000 25 25 25
-1.3000 -1.8500 -0.1000 0.0000 1.0000 0.0000 25 25 25
-1.3000 -1.8500 -0.0500 0.0000 1.0000 0.0000 25 25 25
-1.3000 -1.8500 0.0000 0.0000 1.0000 0.0000 25 25 25
-1.3000 -1.8500 0.0500 0.0000 1.0000 0.0000 25 25 25
-1.3000 -1.8500 0.1000 0.0000 1.0000 0.0000 25 25 25
-1.3000 -1.8500 0.1500 0.0000 1.0000 0.0000 25 25 25
-1.3000 -1.8500 0.2000 0.0000 1.0000 0.0000 25 25 25
-1.3000 -1.8500 0.2500 0.0000 1.0000 0.0000 25 25 25
-1.3000 -1.8500 0.3000 0.0000 1.0000 0.0000 25 25 25
-1.3000 -1.8500 0.3500 0.0000 1.0000 0.0000 25 25 25
-1.3000 -1.8500 0.4000 0.0000 1.0000 0.0000 25 25 25
-1.3000 -1.8500 0.4500 0.0000 1.0000 0.0000 25 25 25
-1.3000 -1.8500 0.5000 0.0000 1.0000 0.0000 25 25 25
-1.3000 -1.8500 0.5500 0.0000 1.0000 0.0000 25 25 25
-1.3000 -1.8500 0.6000 0.0000 1.0000 0.0000 25 25 25
-1.3000 -1.8500 0.6500 0.0000 1.0000 0.0000 25 25 25
-1.3000 -1.8500 0.7000 0.0000 1.0000 0.0000 25 25 25
-1.3000 -1.8500 0.7500 0.0000 1.0000 0.0000 25 25 25
-1.3000 -1.8500 0.8000 0.0000 1.0000 0.0000 25 25 25
-1.3000 -1.8500 0.8500 0.0000 1.0000 0.0000 25 25 25
-1.3000 -1.8500 0.9000 0.0000 1.0000 0.0000 25 25 25
-1.3000 -1.8500 0.9500 0.0000 1.0000 0.0000 25 25 25
-1.3000 -1.8500 1.0000 0.0000 1.0000 0.0000 25 25 25
-1.3000 -1.8500 1.0500 0.0000 1.0000 0.0000 25 25 25
-1.3000 -1.8500 1.1000 0.0000 1.0000 0.0000 25 25 25
-1.3000 -1.8500 1.1500 0.0000 1.0000 0.0000 25 25 25
-1.3000 -1.8500 1.2000 0.0000 1.0000 0.0000 25 25 25
-1.3000 -1.8500 1.2500 0.0000 1.0000 0.0000 25 25 25
-1.3000 -1.8500 1.3000 0.0000 1.0000 0.0000 25 25 25
-1.3000 -1.8500 1.3500 0.0000 1.0000 0.0000 25 25 25
-1.3000 -1.8500 1.4000 0.0000 1.0000 0.0000 25 25 25
-1.3000 -1.8500 1.4500 0.0000 1.0000 0.0000 25 25 25
-1.3000 -1.8500 1.5000 0.0000 1.0000 0.0000 25 25 25
-1.3000 -1.8500 1.5500 0.0000 1.0000 0.0000 25 25 25
-1.3000 -1.8500 1.6000 0.0000 1.0000 0.0000 25 25 25
-1.3000 -1.8500 1.6500 0.0000 1.0000 0.0000 25 25 25
-1.3000 -1.8500 1.7000 0.0000 1.0000 0.0000 25 25 25
-1.3000 -1.8500 1.7500 0.0000 1.0000 0.0000 25 25 25
-1.3000 -1.8500 1.8000 0.0000 1.0000 0.0000 25 25 25
-1.3000 -1.8500 1.8500 0.0000 1.0000 0.0000 25 25 25
-1.3000 -1.8500 1.9000 0.0000 1.0000 0.0000 25 25 25
-1.3000 -1.8500 1.9500 0.0000 1.0000 0.0000 25 25 25
-1.3000 -1.8000 -2.0000 0.0000 1.0000 0.0000 25 25 25
-1.3000 -1.8000 -1.9500 0.0000 1.0000 0.0000 25 25 25
-1.3000 -1.8000 -1.9000 0.0000 1.0000 0.0000 25 25 25
-1.3000 -1.8000 -1.8500 0.0000 1.0000 0.0000 25 25 25
-1.3000 -1.8000 -1.8000 0.0000 1.0000 0.0000 25 25 25
-1.3000 -1.8000 -1.7500 0.0000 1.0000 0.0000 25 25 25
-1.3000 -1.8000 -1.7000 0.0000 1.0000 0.0000 25 25 25
-1.3000 -1.8000 -1.6500 0.0000 1.0000 0.0000 25 25 25
-1.3000 -1.8000 -1.6000 0.0000 1.0000 0.0000 25 25 25
-1.3000 -1.8000 -1.5500 0.0000 1.0000 0.0000 25 25 25
-1.3000 -1.8000 -1.5000 0.0000 1.0000 0.0000 25 25 25
-1.3000 -1.8000 -1.4500 0.0000 1.0000 0.0000 25 25 25
-1.3000 -1.8000 -1.4000 0.0000 1.0000 0.0000 25 25 25
-1.3000 -1.8000 -1.3500 0.0000 1.0000 0.0000 25 25 25
-1.3000 -1.8000 -1.3000 0.0000 1.0000 0.0000 25 25 25
-1.3000 -1.8000 -1.2500 0.0000 1.0000 0.0000 25 25 25
-1.3000 -1.8000 -1.2000 0.0000 1.0000 0.0000 25 25 25
-1.3000 -1.8000 -1.1500 0.0000 1.0000 0.0000 25 25 25
-1.3000 -1.8000 -1.1000 0.0000 1.0000 0.0000 25 25 25
-1.3000 -1.8000 -1.0500 0.0000 1.0000 0.0000 25 25 25
-1.3000 -1.8000 -1.0000 0.0000 1.0000 0.0000 25 25 25
-1.3000 -1.8000 -0.9500 0.0000 1.0000 0.0000 25 25 25
-1.3000 -1.8000 -0.9000 0.0000 1.0000 0.0000 25 25 25
-1.3000 -1.8000 -0.8500 0.0000 1.0000 0.0000 25 25 25
-1.3000 -1.8000 -0.8000 0.0000 1.0000 0.0000 25 25 25
-1.3000 -1.8000 -0.7500 0.0000 1.0000 0.0000 25 25 25
-1.3000 -1.8000 -0.7000 0.0000 1.0000 0.0000 25 25 25
-1.3000 -1.8000 -0.6500 0.0000 1.0000 0.0000 25 25 25
-1.3000 -1.8000 -0.6000 0.0000 1.0000 0.0000 25 25 25
-1.3000 -1.8000 -0.5500 0.0000 1.0000 0.0000 25 25 25
-1.3000 -1.8000 -0.5000 0.0000 1.0000 0.0000 25 25 25
-1.3000 -1.8000 -0.4500 0.0000 1.0000 0.0000 25 25 25
-1.3000 -1.8000 -0.4000 0.0000 1.0000 0.0000 25 25 25
-1.3000 -1.8000 -0.3500 0.0000 1.0000 0.0000 25 25 25
-1.3000 -1.8000 -0.3000 0.0000 1.0000 0.0000 25 25 25
-1.3000 -1.8000 -0.2500 0.0000 1.0000 0.0000 25 25 25
-1.3000 -1.8000 -0.2000 0.0000 1.0000 0.0000 25 25 25
-1.3000 -1.8000 -0.1500 0.0000 1.0000 0.0000 25 25 25
-1.3000 -1.8000 -0.1000 0.0000 1.0000 0.0000 25 25 25
-1.3000 -1.8000 -0.0500 0.0000 1.0000 0.0000 25 25 25
-1.3000 -1.8000 0.0000 0.0000 1.0000 0.0000 25 25 25
-1.3000 -1.8000 0.0500 0.0000 1.0000 0.0000 25 25 25
-1.3000 -1.8000 0.1000 0.0000 1.0000 0.0000 25 25 25
-1.3000 -1.8000 0.1500 0.0000 1.0000 0.0000 25 25 25
-1.3000 -1.8000 0.2000 0.0000 1.0000 0.0000 25 25 25
-1.3000 -1.8000 0.2500 0.0000 1.0000 0.0000 25 25 25
-1.3000 -1.8000 0.3000 0.0000 1.0000 0.0000 25 25 25
-1.3000 -1.8000 0.3500 0.0000 1.0000 0.0000 25 25 25
-1.3000 -1.8000 0.4000 0.0000 1.0000 0.0000 25 25 25
-1.3000 -1.8000 0.4500 0.0000 1.0000 0.0000 25 25 25
-1.3000 -1.8000 0.5000 0.0000 1.0000 0.0000 25 25 25
-1.3000 -1.8000 0.5500 0.0000 1.0000 0.0000 25 25 25
-1.3000 -1.8000 0.6000 0.0000 1.0000 0.0000 25 25 25
-1.3000 -1.8000 0.6500 0.0000 1.0000 0.0000 25 25 25
-1.3000 -1.8000 0.7000 0.0000 1.0000 0.0000 25 25 25
-1.3000 -1.8000 0.7500 0.0000 1.0000 0.0000 25 25 25
-1.3000 -1.8000 0.8000 0.0000 1.0000 0.0000 25 25 25
-1.3000 -1.8000 0.8500 0.0000 1.0000 0.0000 25 25 25
-1.3000 -1.8000 0.9000 0.0000 1.0000 0.0000 25 25 25
-1.3000 -1.8000 0.9500 0.0000 1.0000 0.0000 25 25 25
-1.3000 -1.8000 1.0000 0.0000 1.0000 0.0000 25 25 25
-1.3000 -1.8000 1.0500 0.0000 1.0000 0.0000 25 25 25
-1.3000 -1.8000 1.1000 0.0000 1.0000 0.0000 25 25 25
-1.3000 -1.8000 1.1500 0.0000 1.0000 0.0000 25 25 25
-1.3000 -1.8000 1.2000 0.0000 1.0000 0.0000 25 25 25
-1.3000 -1.8000 1.2500 0.0000 1.0000 0.0000 25 25 25
-1.3000 -1.8000 1.3000 0.0000 1.0000 0.0000 25 25 25
-1.3000 -1.8000 1.3500 0.0000 1.0000 0.0000 25 25 25
-1.3000 -1.8000 1.4000 0.0000 1.0000 0.0000 25 25 25
-1.3000 -1.8000 1.4500 0.0000 1.0000 0.0000 25 25 25
-1.3000 -1.8000 1.5000 0.0000 1.0000 0.0000 25 25 25
-1.3000 -1.8000 1.5500 0.0000 1.0000 0.0000 25 25 25
-1.3000 -1.8000 1.6000 0.0000 1.0000 0.0000 25 25 25
-1.3000 -1.8000 1.6500 0.0000 1.0000 0.0000 25 25 25
-1.3000 -1.8000 1.7000 0.0000 1.0000 0.0000 25 25 25
-1.3000 -1.8000 1.7500 0.0000 1.0000 0.0000 25 25 25
-1.3000 -1.8000 1.8000 0.0000 1.0000 0.0000 25 25 25
-1.3000 -1.8000 1.8500 0.0000 1.0000 0.0000 25 25 25
-1.3000 -1.8000 1.9000 0.0000 1.0000 0.0000 25 25 25
-1.3000 -1.8000 1.9500 0.0000 1.0000 0.0000 25 25 25
-1.3000 -1.7500 -2.0000 0.0000 1.0000 0.0000 25 25 25
-1.3000 -1.7500 -1.9500 0.0000 1.0000 0.0000 25 25 25
-1.3000 -1.7500 -1.9000 0.0000 1.0000 0.0000 25 25 25
-1.3000 -1.7500 -1.8500 0.0000 1.0000 0.0000 25 25 25
-1.3000 -1.7500 -1.8000 0.0000 1.0000 0.0000 25 25 25
-1.3000 -1.7500 -1.7500 0.0000 1.0000 0.0000 25 25 25
-1.3000 -1.7500 -1.7000 0.0000 1.0000 0.0000 25 25 25
-1.3000 -1.7500 -1.6500 0.0000 1.0000 0.0000 25 25 25
-1.3000 -1.7500 -1.6000 0.0000 1.0000 0.0000 25 25 25
-1.3000 -1.7500 -1.5500 0.0000 1.0000 0.0000 25 25 25
-1.3000 -1.7500 -1.5000 0.0000 1.0000 0.0000 25 25 25
-1.3000 -1.7500 -1.4500 0.0000 1.0000 0.0000 25 25 25
-1.3000 -1.7500 -1.4000 0.0000 1.0000 0.0000 25 25 25
-1.3000 -1.7500 -1.3500 0.0000 1.0000 0.0000 25 25 25
-1.3000 -1.7500 -1.3000 0.0000 1.0000 0.0000 25 25 25
-1.3000 -1.7500 -1.2500 0.0000 1.0000 0.0000 25 25 25
-1.3000 -1.7500 -1.2000 0.0000 1.0000 0.0000 25 25 25
-1.3000 -1.7500 -1.1500 0.0000 1.0000 0.0000 25 25 25
-1.3000 -1.7500 -1.1000 0.0000 1.0000 0.0000 25 25 25
-1.3000 -1.7500 -1.0500 0.0000 1.0000 0.0000 25 25 25
-1.3000 -1.7500 -1.0000 0.0000 1.0000 0.0000 25 25 25
-1.3000 -1.7500 -0.9500 0.0000 1.0000 0.0000 25 25 25
-1.3000 -1.7500 -0.9000 0.0000 1.0000 0.0000 25 25 25
-1.3000 -1.7500 -0.8500 0.0000 1.0000 0.0000 25 25 25
-1.3000 -1.7500 -0.8000 0.0000 1.0000 0.0000 25 25 25
-1.3000 -1.7500 -0.7500 0.0000 1.0000 0.0000 25 25 25
-1.3000 -1.7500 -0.7000 0.0000 1.0000 0.0000 25 25 25
-1.3000 -1.7500 -0.6500 0.0000 1.0000 0.0000 25 25 25
-1.3000 -1.7500 -0.6000 0.0000 1.0000 0.0000 25 25 25
-1.3000 -1.7500 -0.5500 0.0000 1.0000 0.0000 25 25 25
-1.3000 -1.7500 -0.5000 0.0000 1.0000 0.0000 25 25 25
-1.3000 -1.7500 -0.4500 0.0000 1.0000 0.0000 25 25 25
-1.3000 -1.7500 -0.4000 0.0000 1.0000 0.0000 25 25 25
-1.3000 -1.7500 -0.3500 0.0000 1.0000 0.0000 25 25 25
-1.3000 -1.7500 -0.3000 0.0000 1.0000 0.0000 25 25 25
-1.3000 -1.7500 -0.2500 0.0000 1.0000 0.0000 25 25 25
-1.3000 -1.7500 -0.2000 0.0000 1.0000 0.0000 25 25 25
-1.3000 -1.7500 -0.1500 0.0000 1.0000 0.0000 25 25 25
-1.3000 -1.7500 -0.1000 0.0000 1.0000 0.0000 25 25 25
-1.3000 -1.7500 -0.0500 0.0000 1.0000 0.0000 25 25 25
-1.3000 -1.7500 0.0000 0.0000 1.0000 0.0000 25 25 25
-1.3000 -1.7500 0.0500 0.0000 1.0000 0.0000 25 25 25
-1.3000 -1.7500 0.1000 0.0000 1.0000 0.0000 25 25 25
-1.3000 -1.7500 0.1500 0.0000 1.0000 0.0000 25 25 25
-1.3000 -1.7500 0.2000 0.0000 1.0000 0.0000 25 25 25
-1.3000 -1.7500 0.2500 0.0000 1.0000 0.0000 25 25 25
-1.3000 -1.7500 0.3000 0.0000 1.0000 0.0000 25 25 25
-1.3000 -1.7500 0.3500 0.0000 1.0000 0.0000 25 25 25
-1.3000 -1.7500 0.4000 0.0000 1.0000 0.0000 25 25 25
-1.3000 -1.7500 0.4500 0.0000 1.0000 0.0000 25 25 25
-1.3000 -1.7500 0.5000 0.0000 1.0000 0.0000 25 25 25
-1.3000 -1.7500 0.5500 0.0000 1.0000 0.0000 25 25 25
-1.3000 -1.7500 0.6000 0.0000 1.0000 0.0000 25 25 25
-1.3000 -1.7500 0.6500 0.0000 1.0000 0.0000 25 25 25
-1.3000 -1.7500 0.7000 0.0000 1.0000 0.0000 25 25 25
-1.3000 -1.7500 0.7500 0.0000 1.0000 0.0000 25 25 25
-1.3000 -1.7500 0.8000 0.0000 1.0000 0.0000 25 25 25
-1.3000 -1.7500 0.8500 0.0000 1.0000 0.0000 25 25 25
-1.3000 -1.7500 0.9000 0.0000 1.0000 0.0000 25 25 25
-1.3000 -1.7500 0.9500 0.0000 1.0000 0.0000 25 25 25
-1.3000 -1.7500 1.0000 0.0000 1.0000 0.0000 25 25 25
-1.3000 -1.7500 1.0500 0.0000 1.0000 0.0000 25 25 25
-1.3000 -1.7500 1.1000 0.0000 1.0000 0.0000 25 25 25
-1.3000 -1.7500 1.1500 0.0000 1.0000 0.0000 25 25 25
-1.3000 -1.7500 1.2000 0.0000 1.0000 0.0000 25 25 25
-1.3000 -1.7500 1.2500 0.0000 1.0000 0.0000 25 25 25
-1.3000 -1.7500 1.3000 0.0000 1.0000 0.0000 25 25 25
-1.3000 -1.7500 1.3500 0.0000 1.0000 0.0000 25 25 25
-1.3000 -1.7500 1.4000 0.0000 1.0000 0.0000 25 25 25
-1.3000 -1.7500 1.4500 0.0000 1.0000 0.0000 25 25 25
-1.3000 -1.7500 1.5000 0.0000 1.0000 0.0000 25 25 25
-1.3000 -1.7500 1.5500 0.0000 1.0000 0.0000 25 25 25
-1.3000 -1.7500 1.6000 0.0000 1.0000 0.0000 25 25 25
-1.3000 -1.7500 1.6500 0.0000 1.0000 0.0000 25 25 25
-1.3000 -1.7500 1.7000 0.0000 1.0000 0.0000 25 25 25
-1.3000 -1.7500 1.7500 0.0000 1.0000 0.0000 25 25 25
-1.3000 -1.7500 1.8000 0.0000 1.0000 0.0000 25 25 25
-1.3000 -1.7500 1.8500 0.0000 1.0000 0.0000 25 25 25
-1.3000 -1.7500 1.9000 0.0000 1.0000 0.0000 25 25 25
-1.3000 -1.7500 1.9500 0.0000 1.0000 0.0000 25 25 25
-1.3000 -1.7000 -2.0000 0.0000 1.0000 0.0000 25 25 25
-1.3000 -1.7000 -1.9500 0.0000 1.0000 0.0000 25 25 25
-1.3000 -1.7000 -1.9000 0.0000 1.0000 0.0000 25 25 25
-1.3000 -1.7000 -1.8500 0.0000 1.0000 0.0000 25 25 25
-1.3000 -1.7000 -1.8000 0.0000 1.0000 0.0000 25 25 25
-1.3000 -1.7000 -1.7500 0.0000 1.0000 0.0000 25 25 25
-1.3000 -1.7000 -1.7000 0.0000 1.0000 0.0000 25 25 25
-1.3000 -1.7000 -1.6500 0.0000 1.0000 0.0000 25 25 25
-1.3000 -1.7000 -1.6000 0.0000 1.0000 0.0000 25 25 25
-1.3000 -1.7000 -1.5500 0.0000 1.0000 0.0000 25 25 25
-1.3000 -1.7000 -1.5000 0.0000 1.0000 0.0000 25 25 25
-1.3000 -1.7000 -1.4500 0.0000 1.0000 0.0000 25 25 25
-1.3000 -1.7000 -1.4000 0.0000 1.0000 0.0000 25 25 25
-1.3000 -1.7000 -1.3500 0.0000 1.0000 0.0000 25 25 25
-1.3000 -1.7000 -1.3000 0.0000 1.0000 0.0000 25 25 25
-1.3000 -1.7000 -1.2500 0.0000 1.0000 0.0000 25 25 25
-1.3000 -1.7000 -1.2000 0.0000 1.0000 0.0000 25 25 25
-1.3000 -1.7000 -1.1500 0.0000 1.0000 0.0000 25 25 25
-1.3000 -1.7000 -1.1000 0.0000 1.0000 0.0000 25 25 25
-1.3000 -1.7000 -1.0500 0.0000 1.0000 0.0000 25 25 25
-1.3000 -1.7000 -1.0000 0.0000 1.0000 0.0000 25 25 25
-1.3000 -1.7000 -0.9500 0.0000 1.0000 0.0000 25 25 25
-1.3000 -1.7000 -0.9000 0.0000 1.0000 0.0000 25 25 25
-1.3000 -1.7000 -0.8500 0.0000 1.0000 0.0000 25 25 25
-1.3000 -1.7000 -0.8000 0.0000 1.0000 0.0000 25 25 25
-1.3000 -1.7000 -0.7500 0.0000 1.0000 0.0000 25 25 25
-1.3000 -1.7000 -0.7000 0.0000 1.0000 0.0000 25 25 25
-1.3000 -1.7000 -0.6500 0.0000 1.0000 0.0000 25 25 25
-1.3000 -1.7000 -0.6000 0.0000 1.0000 0.0000 25 25 25
-1.3000 -1.7000 -0.5500 0.0000 1.0000 0.0000 25 25 25
-1.3000 -1.7000 -0.5000 0.0000 1.0000 0.0000 25 25 25
-1.3000 -1.7000 -0.4500 0.0000 1.0000 0.0000 25 25 25
-1.3000 -1.7000 -0.4000 0.0000 1.0000 0.0000 25 25 25
-1.3000 -1.7000 -0.3500 0.0000 1.0000 0.0000 25 25 25
-1.3000 -1.7000 -0.3000 0.0000 1.0000 0.0000 25 25 25
-1.3000 -1.7000 -0.2500 0.0000 1.0000 0.0000 25 25 25
-1.3000 -1.7000 -0.2000 0.0000 1.0000 0.0000 25 25 25
-1.3000 -1.7000 -0.1500 0.0000 1.0000 0.0000 25 25 25
-1.3000 -1.7000 -0.1000 0.0000 1.0000 0.0000 25 25 25
-1.3000 -1.7000 -0.0500 0.0000 1.0000 0.0000 25 25 25
-1.3000 -1.7000 0.0000 0.0000 1.0000 0.0000 25 25 25
-1.3000 -1.7000 0.0500 0.0000 1.0000 0.0000 25 25 25
-1.3000 -1.7000 0.1000 0.0000 1.0000 0.0000 25 25 25
-1.3000 -1.7000 0.1500 0.0000 1.0000 0.0000 25 25 25
-1.3000 -1.7000 0.2000 0.0000 1.0000 0.0000 25 25 25
-1.3000 -1.7000 0.2500 0.0000 1.0000 0.0000 25 25 25
-1.3000 -1.7000 0.3000 0.0000 1.0000 0.0000 25 25 25
-1.3000 -1.7000 0.3500 0.0000 1.0000 0.0000 25 25 25
-1.3000 -1.7000 0.4000 0.0000 1.0000 0.0000 25 25 25
-1.3000 -1.7000 0.4500 0.0000 1.0000 0.0000 25 25 25
-1.3000 -1.7000 0.5000 0.0000 1.0000 0.0000 25 25 25
-1.3000 -1.7000 0.5500 0.0000 1.0000 0.0000 25 25 25
-1.3000 -1.7000 0.6000 0.0000 1.0000 0.0000 25 25 25
-1.3000 -1.7000 0.6500 0.0000 1.0000 0.0000 25 25 25
-1.3000 -1.7000 0.7000 0.0000 1.0000 0.0000 25 25 25
-1.3000 -1.7000 0.7500 0.0000 1.0000 0.0000 25 25 25
-1.3000 -1.7000 0.8000 0.0000 1.0000 0.0000 25 25 25
-1.3000 -1.7000 0.8500 0.0000 1.0000 0.0000 25 25 25
-1.3000 -1.7000 0.9000 0.0000 1.0000 0.0000 25 25 25
-1.3000 -1.7000 0.9500 0.0000 1.0000 0.0000 25 25 25
-1.3000 -1.7000 1.0000 0.0000 1.0000 0.0000 25 25 25
-1.3000 -1.7000 1.0500 0.0000 1.0000 0.0000 25 25 25
-1.3000 -1.7000 1.1000 0.0000 1.0000 0.0000 25 25 25
-1.3000 -1.7000 1.1500 0.0000 1.0000 0.0000 25 25 25
-1.3000 -1.7000 1.2000 0.0000 1.0000 0.0000 25 25 25
-1.3000 -1.7000 1.2500 0.0000 1.0000 0.0000 25 25 25
-1.3000 -1.7000 1.3000 0.0000 1.0000 0.0000 25 25 25
-1.3000 -1.7000 1.3500 0.0000 1.0000 0.0000 25 25 25
-1.3000 -1.7000 1.4000 0.0000 1.0000 0.0000 25 25 25
-1.3000 -1.7000 1.4500 0.0000 1.0000 0.0000 25 25 25
-1.3000 -1.7000 1.5000 0.0000 1.0000 0.0000 25 25 25
-1.3000 -1.7000 1.5500 0.0000 1.0000 0.0000 25 25 25
-1.3000 -1.7000 1.6000 0.0000 1.0000 0.0000 25 25 25
-1.3000 -1.7000 1.6500 0.0000 1.0000 0.0000 25 25 25
-1.3000 -1.7000 1.7000 0.0000 1.0000 0.0000 25 25 25
-1.3000 -1.7000 1.7500 0.0000 1.0000 0.0000 25 25 25
-1.3000 -1.7000 1.8000 0.0000 1.0000 0.0000 25 25 25
-1.3000 -1.7000 1.8500 0.0000 1.0000 0.0000 25 25 25
-1.3000 -1.7000 1.9000 0.0000 1.0000 0.0000 25 25 25
-1.3000 -1.7000 1.9500 0.0000 1.0000 0.0000 25 25 25
-1.3000 -1.6500 -2.0000 0.0000 1.0000 0.0000 25 25 25
-1.3000 -1.6500 -1.9500 0.0000 1.0000 0.0000 25 25 25
-1.3000 -1.6500 -1.9000 0.0000 1.0000 0.0000 25 25 25
-1.3000 -1.6500 -1.8500 0.0000 1.0000 0.0000 25 25 25
-1.3000 -1.6500 -1.8000 0.0000 1.0000 0.0000 25 25 25
-1.3000 -1.6500 -1.7500 0.0000 1.0000 0.0000 25 25 25
-1.3000 -1.6500 -1.7000 0.0000 1.0000 0.0000 25 25 25
-1.3000 -1.6500 -1.6500 0.0000 1.0000 0.0000 25 25 25
-1.3000 -1.6500 -1.6000 0.0000 1.0000 0.0000 25 25 25
-1.3000 -1.6500 -1.5500 0.0000 1.0000 0.0000 25 25 25
-1.3000 -1.6500 -1.5000 0.0000 1.0000 0.0000 25 25 25
-1.3000 -1.6500 -1.4500 0.0000 1.0000 0.0000 25 25 25
-1.3000 -1.6500 -1.4000 0.0000 1.0000 0.0000 25 25 25
-1.3000 -1.6500 -1.3500 0.0000 1.0000 0.0000 25 25 25
-1.3000 -1.6500 -1.3000 0.0000 1.0000 0.0000 25 25 25
-1.3000 -1.6500 -1.2500 0.0000 1.0000 0.0000 25 25 25
-1.3000 -1.6500 -1.2000 0.0000 1.0000 0.0000 25 25 25
-1.3000 -1.6500 -1.1500 0.0000 1.0000 0.0000 25 25 25
-1.3000 -1.6500 -1.1000 0.0000 1.0000 0.0000 25 25 25
-1.3000 -1.6500 -1.0500 0.0000 1.0000 0.0000 25 25 25
-1.3000 -1.6500 -1.0000 0.0000 1.0000 0.0000 25 25 25
-1.3000 -1.6500 -0.9500 0.0000 1.0000 0.0000 25 25 25
-1.3000 -1.6500 -0.9000 0.0000 1.0000 0.0000 25 25 25
-1.3000 -1.6500 -0.8500 0.0000 1.0000 0.0000 25 25 25
-1.3000 -1.6500 -0.8000 0.0000 1.0000 0.0000 25 25 25
-1.3000 -1.6500 -0.7500 0.0000 1.0000 0.0000 25 25 25
-1.3000 -1.6500 -0.7000 0.0000 1.0000 0.0000 25 25 25
-1.3000 -1.6500 -0.6500 0.0000 1.0000 0.0000 25 25 25
-1.3000 -1.6500 -0.6000 0.0000 1.0000 0.0000 25 25 25
-1.3000 -1.6500 -0.5500 0.0000 1.0000 0.0000 25 25 25
-1.3000 -1.6500 -0.5000 0.0000 1.0000 0.0000 25 25 25
-1.3000 -1.6500 -0.4500 0.0000 1.0000 0.0000 25 25 25
-1.3000 -1.6500 -0.4000 0.0000 1.0000 0.0000 25 25 25
-1.3000 -1.6500 -0.3500 0.0000 1.0000 0.0000 25 25 25
-1.3000 -1.6500 -0.3000 0.0000 1.0000 0.0000 25 25 25
-1.3000 -1.6500 -0.2500 0.0000 1.0000 0.0000 25 25 25
-1.3000 -1.6500 -0.2000 0.0000 1.0000 0.0000 25 25 25
-1.3000 -1.6500 -0.1500 0.0000 1.0000 0.0000 25 25 25
-1.3000 -1.6500 -0.1000 0.0000 1.0000 0.0000 25 25 25
-1.3000 -1.6500 -0.0500 0.0000 1.0000 0.0000 25 25 25
-1.3000 -1.6500 0.0000 0.0000 1.0000 0.0000 25 25 25
-1.3000 -1.6500 0.0500 0.0000 1.0000 0.0000 25 25 25
-1.3000 -1.6500 0.1000 0.0000 1.0000 0.0000 25 25 25
-1.3000 -1.6500 0.1500 0.0000 1.0000 0.0000 25 25 25
-1.3000 -1.6500 0.2000 0.0000 1.0000 0.0000 25 25 25
-1.3000 -1.6500 0.2500 0.0000 1.0000 0.0000 25 25 25
-1.3000 -1.6500 0.3000 0.0000 1.0000 0.0000 25 25 25
-1.3000 -1.6500 0.3500 0.0000 1.0000 0.0000 25 25 25
-1.3000 -1.6500 0.4000 0.0000 1.0000 0.0000 25 25 25
-1.3000 -1.6500 0.4500 0.0000 1.0000 0.0000 25 25 25
-1.3000 -1.6500 0.5000 0.0000 1.0000 0.0000 25 25 25
-1.3000 -1.6500 0.5500 0.0000 1.0000 0.0000 25 25 25
-1.3000 -1.6500 0.6000 0.0000 1.0000 0.0000 25 25 25
-1.3000 -1.6500 0.6500 0.0000 1.0000 0.0000 25 25 25
-1.3000 -1.6500 0.7000 0.0000 1.0000 0.0000 25 25 25
-1.3000 -1.6500 0.7500 0.0000 1.0000 0.0000 25 25 25
-1.3000 -1.6500 0.8000 0.0000 1.0000 0.0000 25 25 25
-1.3000 -1.6500 0.8500 0.0000 1.0000 0.0000 25 25 25
-1.3000 -1.6500 0.9000 0.0000 1.0000 0.0000 25 25 25
-1.3000 -1.6500 0.9500 0.0000 1.0000 0.0000 25 25 25
-1.3000 -1.6500 1.0000 0.0000 1.0000 0.0000 25 25 25
-1.3000 -1.6500 1.0500 0.0000 1.0000 0.0000 25 25 25
-1.3000 -1.6500 1.1000 0.0000 1.0000 0.0000 25 25 25
-1.3000 -1.6500 1.1500 0.0000 1.0000 0.0000 25 25 25
-1.3000 -1.6500 1.2000 0.0000 1.0000 0.0000 25 25 25
-1.3000 -1.6500 1.2500 0.0000 1.0000 0.0000 25 25 25
-1.3000 -1.6500 1.3000 0.0000 1.0000 0.0000 25 25 25
-1.3000 -1.6500 1.3500 0.0000 1.0000 0.0000 25 25 25
-1.3000 -1.6500 1.4000 0.0000 1.0000 0.0000 25 25 25
-1.3000 -1.6500 1.4500 0.0000 1.0000 0.0000 25 25 25
-1.3000 -1.6500 1.5000 0.0000 1.0000 0.0000 25 25 25
-1.3000 -1.6500 1.5500 0.0000 1.0000 0.0000 25 25 25
-1.3000 -1.6500 1.6000 0.0000 1.0000 0.0000 25 25 25
-1.3000 -1.6500 1.6500 0.0000 1.0000 0.0000 25 25 25
-1.3000 -1.6500 1.7000 0.0000 1.0000 0.0000 25 25 25
-1.3000 -1.6500 1.7500 0.0000 1.0000 0.0000 25 25 25
-1.3000 -1.6500 1.8000 0.0000 1.0000 0.0000 25 25 25
-1.3000 -1.6500 1.8500 0.0000 1.0000 0.0000 25 25 25
-1.3000 -1.6500 1.9000 0.0000 1.0000 0.0000 25 25 25
-1.3000 -1.6500 1.9500 0.0000 1.0000 0.0000 25 25 25
-1.3000 -1.6000 -2.0000 0.0000 1.0000 0.0000 25 25 25
-1.3000 -1.6000 -1.9500 0.0000 1.0000 0.0000 25 25 25
-1.3000 -1.6000 -1.9000 0.0000 1.0000 0.0000 25 25 25
-1.3000 -1.6000 -1.8500 0.0000 1.0000 0.0000 25 25 25
-1.3000 -1.6000 -1.8000 0.0000 1.0000 0.0000 25 25 25
-1.3000 -1.6000 -1.7500 0.0000 1.0000 0.0000 25 25 25
-1.3000 -1.6000 -1.7000 0.0000 1.0000 0.0000 25 25 25
-1.3000 -1.6000 -1.6500 0.0000 1.0000 0.0000 25 25 25
-1.3000 -1.6000 -1.6000 0.0000 1.0000 0.0000 25 25 25
-1.3000 -1.6000 -1.5500 0.0000 1.0000 0.0000 25 25 25
-1.3000 -1.6000 -1.5000 0.0000 1.0000 0.0000 25 25 25
-1.3000 -1.6000 -1.4500 0.0000 1.0000 0.0000 25 25 25
-1.3000 -1.6000 -1.4000 0.0000 1.0000 0.0000 25 25 25
-1.3000 -1.6000 -1.3500 0.0000 1.0000 0.0000 25 25 25
-1.3000 -1.6000 -1.3000 0.0000 1.0000 0.0000 25 25 25
-1.3000 -1.6000 -1.2500 0.0000 1.0000 0.0000 25 25 25
-1.3000 -1.6000 -1.2000 0.0000 1.0000 0.0000 25 25 25
-1.3000 -1.6000 -1.1500 0.0000 1.0000 0.0000 25 25 25
-1.3000 -1.6000 -1.1000 0.0000 1.0000 0.0000 25 25 25
-1.3000 -1.6000 -1.0500 0.0000 1.0000 0.0000 25 25 25
-1.3000 -1.6000 -1.0000 0.0000 1.0000 0.0000 25 25 25
-1.3000 -1.6000 -0.9500 0.0000 1.0000 0.0000 25 25 25
-1.3000 -1.6000 -0.9000 0.0000 1.0000 0.0000 25 25 25
-1.3000 -1.6000 -0.8500 0.0000 1.0000 0.0000 25 25 25
-1.3000 -1.6000 -0.8000 0.0000 1.0000 0.0000 25 25 25
-1.3000 -1.6000 -0.7500 0.0000 1.0000 0.0000 25 25 25
-1.3000 -1.6000 -0.7000 0.0000 1.0000 0.0000 25 25 25
-1.3000 -1.6000 -0.6500 0.0000 1.0000 0.0000 25 25 25
-1.3000 -1.6000 -0.6000 0.0000 1.0000 0.0000 25 25 25
-1.3000 -1.6000 -0.5500 0.0000 1.0000 0.0000 25 25 25
-1.3000 -1.6000 -0.5000 0.0000 1.0000 0.0000 25 25 25
-1.3000 -1.6000 -0.4500 0.0000 1.0000 0.0000 25 25 25
-1.3000 -1.6000 -0.4000 0.0000 1.0000 0.0000 25 25 25
-1.3000 -1.6000 -0.3500 0.0000 1.0000 0.0000 25 25 25
-1.3000 -1.6000 -0.3000 0.0000 1.0000 0.0000 25 25 25
-1.3000 -1.6000 -0.2500 0.0000 1.0000 0.0000 25 25 25
-1.3000 -1.6000 -0.2000 0.0000 1.0000 0.0000 25 25 25
-1.3000 -1.6000 -0.1500 0.0000 1.0000 0.0000 25 25 25
-1.3000 -1.6000 -0.1000 0.0000 1.0000 0.0000 25 25 25
-1.3000 -1.6000 -0.0500 0.0000 1.0000 0.0000 25 25 25
-1.3000 -1.6000 0.0000 0.0000 1.0000 0.0000 25 25 25
-1.3000 -1.6000 0.0500 0.0000 1.0000 0.0000 25 25 25
-1.3000 -1.6000 0.1000 0.0000 1.0000 0.0000 25 25 25
-1.3000 -1.6000 0.1500 0.0000 1.0000 0.0000 25 25 25
-1.3000 -1.6000 0.2000 0.0000 1.0000 0.0000 25 25 25
-1.3000 -1.6000 0.2500 0.0000 1.0000 0.0000 25 25 25
-1.3000 -1.6000 0.3000 0.0000 1.0000 0.0000 25 25 25
-1.3000 -1.6000 0.3500 0.0000 1.0000 0.0000 25 25 25
-1.3000 -1.6000 0.4000 0.0000 1.0000 0.0000 25 25 25
-1.3000 -1.6000 0.4500 0.0000 1.0000 0.0000 25 25 25
-1.3000 -1.6000 0.5000 0.0000 1.0000 0.0000 25 25 25
-1.3000 -1.6000 0.5500 0.0000 1.0000 0.0000 25 25 25
-1.3000 -1.6000 0.6000 0.0000 1.0000 0.0000 25 25 25
-1.3000 -1.6000 0.6500 0.0000 1.0000 0.0000 25 25 25
-1.3000 -1.6000 0.7000 0.0000 1.0000 0.0000 25 25 25
-1.3000 -1.6000 0.7500 0.0000 1.0000 0.0000 25 25 25
-1.3000 -1.6000 0.8000 0.0000 1.0000 0.0000 25 25 25
-1.3000 -1.6000 0.8500 0.0000 1.0000 0.0000 25 25 25
-1.3000 -1.6000 0.9000 0.0000 1.0000 0.0000 25 25 25
-1.3000 -1.6000 0.9500 0.0000 1.0000 0.0000 25 25 25
-1.3000 -1.6000 1.0000 0.0000 1.0000 0.0000 25 25 25
-1.3000 -1.6000 1.0500 0.0000 1.0000 0.0000 25 25 25
-1.3000 -1.6000 1.1000 0.0000 1.0000 0.0000 25 25 25
-1.3000 -1.6000 1.1500 0.0000 1.0000 0.0000 25 25 25
-1.3000 -1.6000 1.2000 0.0000 1.0000 0.0000 25 25 25
-1.3000 -1.6000 1.2500 0.0000 1.0000 0.0000 25 25 25
-1.3000 -1.6000 1.3000 0.0000 1.0000 0.0000 25 25 25
-1.3000 -1.6000 1.3500 0.0000 1.0000 0.0000 25 25 25
-1.3000 -1.6000 1.4000 0.0000 1.0000 0.0000 25 25 25
-1.3000 -1.6000 1.4500 0.0000 1.0000 0.0000 25 25 25
-1.3000 -1.6000 1.5000 0.0000 1.0000 0.0000 25 25 25
-1.3000 -1.6000 1.5500 0.0000 1.0000 0.0000 25 25 25
-1.3000 -1.6000 1.6000 0.0000 1.0000 0.0000 25 25 25
-1.3000 -1.6000 1.6500 0.0000 1.0000 0.0000 25 25 25
-1.3000 -1.6000 1.7000 0.0000 1.0000 0.0000 25 25 25
-1.3000 -1.6000 1.7500 0.0000 1.0000 0.0000 25 25 25
-1.3000 -1.6000 1.8000 0.0000 1.0000 0.0000 25 25 25
-1.3000 -1.6000 1.8500 0.0000 1.0000 0.0000 25 25 25
-1.3000 -1.6000 1.9000 0.0000 1.0000 0.0000 25 25 25
-1.3000 -1.6000 1.9500 0.0000 1.0000 0.0000 25 25 25
-1.3000 -1.5500 -2.0000 0.0000 1.0000 0.0000 25 25 25
-1.3000 -1.5500 -1.9500 0.0000 1.0000 0.0000 25 25 25
-1.3000 -1.5500 -1.9000 0.0000 1.0000 0.0000 25 25 25
-1.3000 -1.5500 -1.8500 0.0000 1.0000 0.0000 25 25 25
-1.3000 -1.5500 -1.8000 0.0000 1.0000 0.0000 25 25 25
-1.3000 -1.5500 -1.7500 0.0000 1.0000 0.0000 25 25 25
-1.3000 -1.5500 -1.7000 0.0000 1.0000 0.0000 25 25 25
-1.3000 -1.5500 -1.6500 0.0000 1.0000 0.0000 25 25 25
-1.3000 -1.5500 -1.6000 0.0000 1.0000 0.0000 25 25 25
-1.3000 -1.5500 -1.5500 0.0000 1.0000 0.0000 25 25 25
-1.3000 -1.5500 -1.5000 0.0000 1.0000 0.0000 25 25 25
-1.3000 -1.5500 -1.4500 0.0000 1.0000 0.0000 25 25 25
-1.3000 -1.5500 -1.4000 0.0000 1.0000 0.0000 25 25 25
-1.3000 -1.5500 -1.3500 0.0000 1.0000 0.0000 25 25 25
-1.3000 -1.5500 -1.3000 0.0000 1.0000 0.0000 25 25 25
-1.3000 -1.5500 -1.2500 0.0000 1.0000 0.0000 25 25 25
-1.3000 -1.5500 -1.2000 0.0000 1.0000 0.0000 25 25 25
-1.3000 -1.5500 -1.1500 0.0000 1.0000 0.0000 25 25 25
-1.3000 -1.5500 -1.1000 0.0000 1.0000 0.0000 25 25 25
-1.3000 -1.5500 -1.0500 0.0000 1.0000 0.0000 25 25 25
-1.3000 -1.5500 -1.0000 0.0000 1.0000 0.0000 25 25 25
-1.3000 -1.5500 -0.9500 0.0000 1.0000 0.0000 25 25 25
-1.3000 -1.5500 -0.9000 0.0000 1.0000 0.0000 25 25 25
-1.3000 -1.5500 -0.8500 0.0000 1.0000 0.0000 25 25 25
-1.3000 -1.5500 -0.8000 0.0000 1.0000 0.0000 25 25 25
-1.3000 -1.5500 -0.7500 0.0000 1.0000 0.0000 25 25 25
-1.3000 -1.5500 -0.7000 0.0000 1.0000 0.0000 25 25 25
-1.3000 -1.5500 -0.6500 0.0000 1.0000 0.0000 25 25 25
-1.3000 -1.5500 -0.6000 0.0000 1.0000 0.0000 25 25 25
-1.3000 -1.5500 -0.5500 0.0000 1.0000 0.0000 25 25 25
-1.3000 -1.5500 -0.5000 0.0000 1.0000 0.0000 25 25 25
-1.3000 -1.5500 -0.4500 0.0000 1.0000 0.0000 25 25 25
-1.3000 -1.5500 -0.4000 0.0000 1.0000 0.0000 25 25 25
-1.3000 -1.5500 -0.3500 0.0000 1.0000 0.0000 25 25 25
